-3.844610839840000153e+03 -2.332387695309999799e+03 -7.459816894499999762e+02
-3.844772216800000024e+03 -2.332341552729999876e+03 -7.282119140600000264e+02
-3.847695556640000177e+03 -2.315199951170000077e+03 -7.537772216800000251e+02
-3.844494140629999947e+03 -2.331904052729999876e+03 -7.367319946300000311e+02
-3.843621337890000177e+03 -2.332564208979999876e+03 -7.190407714799999894e+02
-3.843695312500000000e+03 -2.330548339840000153e+03 -7.501522827100000086e+02
-3.843847412109999823e+03 -2.331732910159999847e+03 -7.399915771500000119e+02
-3.843301513670000077e+03 -2.332161132809999799e+03 -7.238807983399999557e+02
-3.843653564449999976e+03 -2.332545898440000201e+03 -7.141807251000000178e+02
-3.847387207029999900e+03 -2.317200439449999976e+03 -7.538054809599999544e+02
-3.847085937500000000e+03 -2.319179687500000000e+03 -7.538436889600000086e+02
-3.847627197270000124e+03 -2.321241210940000201e+03 -7.535526122999999643e+02
-3.844968017579999923e+03 -2.324201904300000024e+03 -7.535382080099999484e+02
-3.845895751949999976e+03 -2.326010986329999923e+03 -7.530275878899999498e+02
-3.844780761720000100e+03 -2.332288574220000100e+03 -7.428218994100000145e+02
-3.844946533199999976e+03 -2.332197021479999876e+03 -7.341821289099999603e+02
-3.844409179690000201e+03 -2.332598388670000077e+03 -7.259913940400000456e+02
-3.844443115229999876e+03 -2.332590332029999900e+03 -7.211613769499999762e+02
-3.842675048829999923e+03 -2.331621582029999900e+03 -7.416107177699999511e+02
-3.842867431640000177e+03 -2.331171142579999923e+03 -7.322612304699999868e+02
-3.842480712890000177e+03 -2.331795898440000201e+03 -7.295603027299999894e+02
-3.842326171879999947e+03 -2.331926025390000177e+03 -7.217501220699999749e+02
-3.844910156250000000e+03 -2.333042724609999823e+03 -6.862714233399999557e+02
-3.844134765629999947e+03 -2.328766845699999976e+03 -6.471740112300000192e+02
-3.849394042970000100e+03 -2.318725830079999923e+03 -6.142658081099999663e+02
-3.846262695309999799e+03 -2.323803466800000024e+03 -6.140394897500000297e+02
-3.850243896479999876e+03 -2.316368652340000153e+03 -6.146483154300000251e+02
-3.847331542970000100e+03 -2.318933349609999823e+03 -6.143740234399999736e+02
-3.847500244140000177e+03 -2.321204101559999799e+03 -6.142424926800000549e+02
-3.845197509770000124e+03 -2.328166503909999847e+03 -6.130153198199999451e+02
-3.829569824220000100e+03 -2.375761230470000100e+03 -6.140964965800000073e+02
-3.829355957029999900e+03 -2.378495117190000201e+03 -6.129642944299999954e+02
-3.847163574220000100e+03 -2.327468505859999823e+03 -6.134174804699999868e+02
-3.845007080079999923e+03 -2.331980468750000000e+03 -6.133023071300000311e+02
-3.840555908199999976e+03 -2.346208007809999799e+03 -6.148677978499999881e+02
-3.857507324220000100e+03 -2.291204589840000153e+03 -6.143233032199999570e+02
-3.855127197270000124e+03 -2.299899658199999976e+03 -6.141447753899999498e+02
-3.851802734379999947e+03 -2.309297607420000077e+03 -6.143150024399999438e+02
-3.856777099609999823e+03 -2.288120117190000201e+03 -6.150250244100000145e+02
-3.856130126949999976e+03 -2.294473144529999900e+03 -6.143297119100000145e+02
-3.856276123050000024e+03 -2.296727294920000077e+03 -6.142081909199999927e+02
-3.852976074220000100e+03 -2.299533935550000024e+03 -6.141633300800000370e+02
-3.853711425779999900e+03 -2.305997314449999976e+03 -6.141489868200000046e+02
-3.851141113279999900e+03 -2.311565185550000024e+03 -6.144727172899999914e+02
-3.856075683590000153e+03 -2.288690185550000024e+03 -7.544541015600000264e+02
-3.856728027340000153e+03 -2.290946777340000153e+03 -7.541629028300000073e+02
-3.857490966800000024e+03 -2.289831054690000201e+03 -7.602644043000000238e+02
-3.855569091800000024e+03 -2.290168945309999799e+03 -7.611425781299999471e+02
-3.857072509770000124e+03 -2.288021972659999847e+03 -7.575454101599999603e+02
-3.855019775390000177e+03 -2.292070556640000177e+03 -7.539406738300000370e+02
-3.853524658199999976e+03 -2.296014892579999923e+03 -7.537365112300000192e+02
-3.851933105470000100e+03 -2.305165283199999976e+03 -7.537183227499999703e+02
-3.853326171879999947e+03 -2.298200927729999876e+03 -7.537647094699999570e+02
-3.853491210940000201e+03 -2.300512939449999976e+03 -7.537130127000000357e+02
-3.853462158199999976e+03 -2.302945800779999900e+03 -7.537412109399999736e+02
-3.848186035159999847e+03 -2.313070068359999823e+03 -7.536292114300000549e+02
-3.841171386720000100e+03 -2.342378417970000100e+03 -7.531256103499999881e+02
-3.835842285159999847e+03 -2.354262695309999799e+03 -7.537241210900000397e+02
-3.834690917970000100e+03 -2.359647216800000024e+03 -7.540604247999999643e+02
-3.834163085940000201e+03 -2.365721191409999847e+03 -7.539871826199999987e+02
-3.833066894529999900e+03 -2.371072753909999847e+03 -7.542836303699999689e+02
-3.839994873050000024e+03 -2.346226318359999823e+03 -7.540125122099999544e+02
-3.841019531250000000e+03 -2.338450683590000153e+03 -7.496171264600000086e+02
-3.838910644529999900e+03 -2.348723632809999799e+03 -7.540601806600000145e+02
-3.834715087890000177e+03 -2.363353759770000124e+03 -7.540089111300000013e+02
-3.833275878909999847e+03 -2.368406494140000177e+03 -7.539550170899999557e+02
-3.830836425779999900e+03 -2.371598876949999976e+03 -7.542407226599999603e+02
-3.830158691409999847e+03 -2.373777832029999900e+03 -7.542990112300000192e+02
-3.829693847659999847e+03 -2.379830322270000124e+03 -7.547758178699999689e+02
-3.832095214840000153e+03 -2.366390380859999823e+03 -7.538043823199999451e+02
-3.831355712890000177e+03 -2.369247314449999976e+03 -7.542623901399999795e+02
-3.830981201170000077e+03 -2.376129150390000177e+03 -7.544290161100000205e+02
-3.829010742190000201e+03 -2.375479492190000201e+03 -7.540968017599999484e+02
-3.828661865229999876e+03 -2.377985595699999976e+03 -7.545454101599999603e+02
-3.843500488279999900e+03 -2.337654296879999947e+03 -7.127504272500000297e+02
-3.840656738279999900e+03 -2.337383789059999799e+03 -7.342570800800000370e+02
-3.840639160159999847e+03 -2.337399169920000077e+03 -7.300371093799999471e+02
-3.843519287109999823e+03 -2.337695068359999823e+03 -7.091303710900000397e+02
-3.841372558590000153e+03 -2.338617675779999900e+03 -6.602473144499999762e+02
-3.841359863279999900e+03 -2.337389160159999847e+03 -7.364979247999999643e+02
-3.841477050779999900e+03 -2.337580566409999847e+03 -7.261179809599999544e+02
-3.841978759770000124e+03 -2.337451416020000124e+03 -7.174985961899999438e+02
-3.842627929690000201e+03 -2.340017333979999876e+03 -6.588983154300000251e+02
-3.840803710940000201e+03 -2.336733398440000201e+03 -7.441875000000000000e+02
-3.841803710940000201e+03 -2.337081542970000100e+03 -7.461785888699999987e+02
-3.841769287109999823e+03 -2.337074462890000177e+03 -7.419486084000000119e+02
-3.843072753909999847e+03 -2.337209716800000024e+03 -7.070300903300000073e+02
-3.840854736329999923e+03 -2.336899902340000153e+03 -7.240775146500000119e+02
-3.841004882809999799e+03 -2.337080322270000124e+03 -7.215476074199999630e+02
-3.841375488279999900e+03 -2.336783203129999947e+03 -7.148781738300000370e+02
-3.841227294920000077e+03 -2.336630615229999876e+03 -7.125479736300000013e+02
-3.841096435550000024e+03 -2.336510009770000124e+03 -7.090479126000000178e+02
-3.841353271479999876e+03 -2.336077148440000201e+03 -7.031184081999999762e+02
-3.842256835940000201e+03 -2.337068115229999876e+03 -7.049290771500000119e+02
-3.843577392579999923e+03 -2.338302734379999947e+03 -6.138801269499999762e+02
-3.835376464840000153e+03 -2.360474609379999947e+03 -6.138007812500000000e+02
-3.833251708979999876e+03 -2.371348388670000077e+03 -6.141336059599999544e+02
-3.842826171879999947e+03 -2.340502197270000124e+03 -6.140582885699999451e+02
-3.840432861329999923e+03 -2.340814697270000124e+03 -6.139951782199999570e+02
-3.839863769529999900e+03 -2.343159667970000100e+03 -6.140535888699999987e+02
-3.839387695309999799e+03 -2.351541503909999847e+03 -6.141093750000000000e+02
-3.834471923829999923e+03 -2.363137695309999799e+03 -6.138386230500000238e+02
-3.834518554690000201e+03 -2.366151123050000024e+03 -6.141074218799999471e+02
-3.833791015629999947e+03 -2.368999511720000100e+03 -6.140952758800000311e+02
-3.830373291020000124e+03 -2.373381591800000024e+03 -6.143292846699999927e+02
-3.840105224609999823e+03 -2.347874267579999923e+03 -6.138419189500000357e+02
-3.836136474609999823e+03 -2.357610595699999976e+03 -6.138228759800000489e+02
-3.830043457029999900e+03 -2.381722900390000177e+03 -6.149652710000000297e+02
-3.844826416020000124e+03 -2.326806884770000124e+03 -6.145264892599999484e+02
-3.844496826170000077e+03 -2.329467041020000124e+03 -6.149949951199999987e+02
-3.829880126949999976e+03 -2.380467041020000124e+03 -6.227647705099999484e+02
-3.833688964840000153e+03 -2.371476074220000100e+03 -6.228095703100000264e+02
-3.827902587890000177e+03 -2.382683349609999823e+03 -6.190170288100000562e+02
-3.830877929690000201e+03 -2.378311279300000024e+03 -6.227435302699999511e+02
-3.831185302729999876e+03 -2.376112548829999923e+03 -6.228427734399999736e+02
-3.832716552729999876e+03 -2.368367919920000077e+03 -6.227396850600000562e+02
-3.828627685550000024e+03 -2.382256103520000124e+03 -6.209663085900000397e+02
-3.830188720699999976e+03 -2.374595703129999947e+03 -6.219033203100000264e+02
-3.832461914059999799e+03 -2.374872802729999876e+03 -6.216514282199999570e+02
-3.830161621090000153e+03 -2.376381591800000024e+03 -7.625936889600000086e+02
-3.832581054690000201e+03 -2.371622802729999876e+03 -7.626007080099999484e+02
-3.829484130859999823e+03 -2.381164306640000177e+03 -7.615953979500000059e+02
-3.831758789059999799e+03 -2.368746582029999900e+03 -7.624307251000000178e+02
-3.830342285159999847e+03 -2.372708007809999799e+03 -7.461027831999999762e+02
-3.828612304690000201e+03 -2.379330810550000024e+03 -7.619357299800000192e+02
-3.833179443359999823e+03 -2.367122314449999976e+03 -7.628892211899999438e+02
-3.829414794920000077e+03 -2.377737304690000201e+03 -7.518546752900000456e+02
-3.831818115229999876e+03 -2.370658203129999947e+03 -7.434110717800000430e+02
-3.843000000000000000e+03 -2.337615234379999947e+03 -6.618444213899999795e+02
-3.841862304690000201e+03 -2.337560302729999876e+03 -6.682352905300000430e+02
-3.842378173829999923e+03 -2.338425781250000000e+03 -7.023051147500000297e+02
-3.842589599609999823e+03 -2.337587890629999947e+03 -6.987847900399999617e+02
-3.841645019529999900e+03 -2.337574462890000177e+03 -6.890255127000000357e+02
-3.842076416020000124e+03 -2.337535156250000000e+03 -6.792451171899999736e+02
-3.841531494140000177e+03 -2.337735107420000077e+03 -6.755256957999999941e+02
-3.841396484379999947e+03 -2.337445556640000177e+03 -6.721256713899999795e+02
-3.843774169920000077e+03 -2.337729003909999847e+03 -6.649638061499999822e+02
-3.841853759770000124e+03 -2.336934326170000077e+03 -6.655751953100000264e+02
-3.841597900390000177e+03 -2.337508056640000177e+03 -6.570355224600000383e+02
-3.841820312500000000e+03 -2.336770507809999799e+03 -6.590051879899999676e+02
-3.842565917970000100e+03 -2.337862304690000201e+03 -6.530048217800000430e+02
-3.842644531250000000e+03 -2.337596923829999923e+03 -6.934846801800000549e+02
-3.843225341800000024e+03 -2.337818847659999847e+03 -6.875642089799999894e+02
-3.841248046879999947e+03 -2.337421386720000100e+03 -6.842957763699999987e+02
-3.843437988279999900e+03 -2.337972167970000100e+03 -6.768640747099999544e+02
-3.843448486329999923e+03 -2.338549804690000201e+03 -6.740341796899999736e+02
-3.843139404300000024e+03 -2.337637695309999799e+03 -6.507642822300000489e+02
-3.836723388670000077e+03 -2.358808349609999823e+03 -6.229743042000000059e+02
-3.833910888670000077e+03 -2.365875488279999900e+03 -6.225681762699999808e+02
-3.835822021479999876e+03 -2.362864257809999799e+03 -6.228659057600000324e+02
-3.839995117190000201e+03 -2.350057861329999923e+03 -6.229395752000000357e+02
-3.840069580079999923e+03 -2.346818603520000124e+03 -6.227587890600000264e+02
-3.842286621090000153e+03 -2.340961914059999799e+03 -6.260756835900000397e+02
-3.840463867190000201e+03 -2.342491943359999823e+03 -6.243875732400000516e+02
-3.841770263670000077e+03 -2.337585693359999823e+03 -6.459254150399999617e+02
-3.842193847659999847e+03 -2.337525146479999876e+03 -6.357349853499999881e+02
-3.841180664059999799e+03 -2.337531005859999823e+03 -6.314658813500000178e+02
-3.836458496090000153e+03 -2.355089599609999823e+03 -6.223137206999999762e+02
-3.842730957029999900e+03 -2.337175781250000000e+03 -6.299945068399999855e+02
-3.836858642579999923e+03 -2.349233886720000100e+03 -7.626121215800000073e+02
-3.834903564449999976e+03 -2.359444091800000024e+03 -7.627559814500000357e+02
-3.839049804690000201e+03 -2.349298095699999976e+03 -7.625803222700000106e+02
-3.836000488279999900e+03 -2.352892089840000153e+03 -7.621636962899999617e+02
-3.839933593750000000e+03 -2.340073242190000201e+03 -7.625875244100000145e+02
-3.847503906250000000e+03 -2.320571777340000153e+03 -7.623468017599999484e+02
-3.834971679690000201e+03 -2.362298828129999947e+03 -7.626365966800000251e+02
-3.835177490229999876e+03 -2.356595214840000153e+03 -7.625952148400000397e+02
-3.840062744140000177e+03 -2.346508544920000077e+03 -7.626787719699999570e+02
-3.840985595699999976e+03 -2.343485107420000077e+03 -7.622473754899999676e+02
-3.841655273440000201e+03 -2.336592529300000024e+03 -7.625952758800000311e+02
-3.842360595699999976e+03 -2.332570800779999900e+03 -7.628037719699999570e+02
-3.843656982420000077e+03 -2.330596435550000024e+03 -7.630322876000000178e+02
-3.846998779300000024e+03 -2.324458984379999947e+03 -7.625781860399999914e+02
-3.847385009770000124e+03 -2.315631103520000124e+03 -7.626959228499999881e+02
-3.849636962890000177e+03 -2.316440185550000024e+03 -7.625642089799999894e+02
-3.843809814449999976e+03 -2.335511474609999823e+03 -7.627532959000000119e+02
-3.844852783199999976e+03 -2.323835937500000000e+03 -7.623698120100000324e+02
-3.841105224609999823e+03 -2.338566894529999900e+03 -7.617761840800000073e+02
-3.839265625000000000e+03 -2.345468750000000000e+03 -7.135993042000000059e+02
-3.840388916020000124e+03 -2.346720214840000153e+03 -7.147285766600000443e+02
-3.840501708979999876e+03 -2.343477050779999900e+03 -7.111478271500000119e+02
-3.841454101559999799e+03 -2.340438720699999976e+03 -7.071262817399999676e+02
-3.840498291020000124e+03 -2.341771972659999847e+03 -7.088474121100000502e+02
-3.842886474609999823e+03 -2.339311035159999847e+03 -7.052348022500000297e+02
-3.847970947270000124e+03 -2.313611328129999947e+03 -7.626549072300000489e+02
-3.852077392579999923e+03 -2.305478271479999876e+03 -7.626597289999999703e+02
-3.848879150390000177e+03 -2.309728027340000153e+03 -7.626032714799999894e+02
-3.853268554690000201e+03 -2.303833007809999799e+03 -7.625883178699999689e+02
-3.853309814449999976e+03 -2.301437011720000100e+03 -7.625977783199999749e+02
-3.854280273440000201e+03 -2.297541748050000024e+03 -7.625761108399999557e+02
-3.856090087890000177e+03 -2.293185058590000153e+03 -7.625535888699999987e+02
-3.854015869140000177e+03 -2.294569580079999923e+03 -7.622255859399999736e+02
-3.849999755859999823e+03 -2.312856689449999976e+03 -7.620631103499999881e+02
-3.857481689449999976e+03 -2.290507080079999923e+03 -7.628718872099999544e+02
-3.845056396479999876e+03 -2.323735351559999799e+03 -7.213732910200000106e+02
-3.843138183590000153e+03 -2.332687988279999900e+03 -7.048248290999999881e+02
-3.843604492190000201e+03 -2.332553710940000201e+03 -6.981248779300000251e+02
-3.843149414059999799e+03 -2.332062011720000100e+03 -6.849954834000000119e+02
-3.843275390629999947e+03 -2.332522216800000024e+03 -6.774050293000000238e+02
-3.843709228520000124e+03 -2.331958984379999947e+03 -6.711754150399999617e+02
-3.827367919920000077e+03 -2.381860595699999976e+03 -7.641102294900000516e+02
-3.846763671879999947e+03 -2.325500976559999799e+03 -7.213510742199999868e+02
-3.844251708979999876e+03 -2.330004394529999900e+03 -7.162871704100000443e+02
-3.843458496090000153e+03 -2.332907958979999876e+03 -7.118745727499999703e+02
-3.843095947270000124e+03 -2.332255126949999976e+03 -7.098652954100000443e+02
-3.843140869140000177e+03 -2.333212890629999947e+03 -6.962542724600000383e+02
-3.843306884770000124e+03 -2.332260009770000124e+03 -7.005151977499999703e+02
-3.842856201170000077e+03 -2.333042968750000000e+03 -6.831046142599999484e+02
-3.843556152340000153e+03 -2.332250244140000177e+03 -6.911851806600000145e+02
-3.842834716800000024e+03 -2.333211914059999799e+03 -6.684144287100000383e+02
-3.842927978520000124e+03 -2.331231933590000153e+03 -6.940864257800000132e+02
-3.844308837890000177e+03 -2.332715576170000077e+03 -6.944644775399999617e+02
-3.845297119140000177e+03 -2.331904785159999847e+03 -6.901251220699999749e+02
-3.844172851559999799e+03 -2.332938232420000077e+03 -6.793143920899999557e+02
-3.844571044920000077e+03 -2.332823486329999923e+03 -6.739743042000000059e+02
-3.845378173829999923e+03 -2.332508789059999799e+03 -6.698944091800000251e+02
-3.844052001949999976e+03 -2.332707275390000177e+03 -6.655845947300000489e+02
-3.849201171879999947e+03 -2.318371093750000000e+03 -6.226574096699999927e+02
-3.843692382809999799e+03 -2.332173339840000153e+03 -6.522252197300000489e+02
-3.843613525390000177e+03 -2.332276855470000100e+03 -6.454650878899999498e+02
-3.843362060550000024e+03 -2.332452148440000201e+03 -6.390750122099999544e+02
-3.843340087890000177e+03 -2.332528564449999976e+03 -6.322949218799999471e+02
-3.842747802729999876e+03 -2.332922607420000077e+03 -6.607647094699999570e+02
-3.843212890629999947e+03 -2.332778808590000153e+03 -6.549047241199999689e+02
-3.843160888670000077e+03 -2.332446044920000077e+03 -6.482750854500000059e+02
-3.843158691409999847e+03 -2.332106445309999799e+03 -6.411254272500000297e+02
-3.846039306640000177e+03 -2.326033203129999947e+03 -6.233306884800000489e+02
-3.843616943359999823e+03 -2.332810302729999876e+03 -6.354946289099999603e+02
-3.845153808590000153e+03 -2.332615478520000124e+03 -6.290944213899999795e+02
-3.846015380859999823e+03 -2.329372070309999799e+03 -6.246273803699999689e+02
-3.848166503909999847e+03 -2.315928710940000201e+03 -6.226102294900000516e+02
-3.842962890629999947e+03 -2.332374511720000100e+03 -6.630551757800000132e+02
-3.842815917970000100e+03 -2.332497558590000153e+03 -6.573350830099999484e+02
-3.844699462890000177e+03 -2.332490478520000124e+03 -6.593546142599999484e+02
-3.844280517579999923e+03 -2.332371093750000000e+03 -6.499448242199999868e+02
-3.844528564449999976e+03 -2.333169921879999947e+03 -6.431740112300000192e+02
-3.846095703129999947e+03 -2.322217285159999847e+03 -6.226444091800000251e+02
-3.844658447270000124e+03 -2.333168212890000177e+03 -6.375540161100000205e+02
-3.844464111329999923e+03 -2.330853515629999947e+03 -6.265263061499999822e+02
-3.857829345699999976e+03 -2.287484130859999823e+03 -7.611859741199999689e+02
-3.857453613279999900e+03 -2.287456542970000100e+03 -6.207960205099999484e+02
-3.857854492190000201e+03 -2.286951171879999947e+03 -6.179963989300000549e+02
-3.853142822270000124e+03 -2.301859619140000177e+03 -6.228728027299999894e+02
-3.857731689449999976e+03 -2.286197021479999876e+03 -6.144271850600000562e+02
-3.855564208979999876e+03 -2.292263916020000124e+03 -6.227817993200000046e+02
-3.854598388670000077e+03 -2.295072021479999876e+03 -6.226392211899999438e+02
-3.850162353520000124e+03 -2.308863769529999900e+03 -6.227166137699999808e+02
-3.850536621090000153e+03 -2.312001708979999876e+03 -6.227333984399999736e+02
-3.857992919920000077e+03 -2.291281005859999823e+03 -6.223421020499999941e+02
-3.858408447270000124e+03 -2.287526123050000024e+03 -6.161157226599999603e+02
-3.855962402340000153e+03 -2.289675537109999823e+03 -6.220142211899999438e+02
-3.848643554690000201e+03 -2.313653564449999976e+03 -6.223422851599999603e+02
-3.852507812500000000e+03 -2.309916503909999847e+03 -6.227550048800000013e+02
