-3332.87670898 -2144.13061523 -621.34497070 50 47 50
-3326.42041016 -2141.56298828 -620.81890869 49 47 50
-3322.88452148 -2141.36816406 -621.39532471 50 46 48
-3319.87890625 -2144.35571289 -621.09136963 48 44 47
-3367.92797852 -2151.31079102 -622.02960205 51 48 48
-3364.32861328 -2155.97680664 -621.30480957 48 44 48
-3360.41625977 -2158.59960938 -620.86010742 47 44 46
-3357.52026367 -2161.86181641 -620.44641113 45 41 45
-3344.97534180 -2151.20654297 -621.90588379 48 45 48
-3345.46069336 -2155.04760742 -620.85552979 46 43 46
-3353.84448242 -2160.09057617 -621.06292725 46 43 46
-3347.76196289 -2159.78857422 -620.64672852 45 41 44
-3366.86059570 -2166.48095703 -621.17498779 45 40 41
-3366.79248047 -2168.78002930 -621.46441650 44 40 39
-3366.20019531 -2171.19921875 -621.31317139 41 39 38
-3363.73120117 -2172.72607422 -620.27032471 40 38 42
-3343.90234375 -2167.32714844 -620.54101563 41 39 42
-3351.71459961 -2170.03662109 -620.70837402 41 38 41
-3350.20629883 -2173.65161133 -620.35607910 42 39 38
-3346.98852539 -2174.02954102 -621.14257813 41 39 39
-3322.90747070 -2173.23120117 -654.36791992 122 121 136
-3319.16894531 -2171.96899414 -658.19427490 123 122 137
-3319.94409180 -2171.47656250 -652.42517090 121 120 134
-3319.43383789 -2171.59594727 -647.93457031 116 114 127
-3321.48632813 -2172.08471680 -648.33660889 117 116 127
-3325.81518555 -2173.47802734 -639.66082764 94 92 100
-3321.99267578 -2172.85302734 -643.28698730 107 107 118
-3320.92968750 -2172.20141602 -640.33599854 97 95 103
-3341.95800781 -2154.24389648 -621.60198975 46 42 46
-3332.53295898 -2151.59277344 -620.77288818 48 45 48
-3336.68847656 -2154.16284180 -620.30657959 48 44 47
-3339.73144531 -2157.54125977 -620.95892334 47 43 44
-3326.07446289 -2153.77880859 -621.27569580 44 42 45
-3329.03881836 -2156.35327148 -621.08819580 43 41 45
-3326.32836914 -2155.78979492 -620.94549561 44 41 43
-3333.91772461 -2173.71264648 -624.44921875 50 47 44
-3341.95166016 -2166.24218750 -620.96917725 41 39 42
-3335.09179688 -2164.79003906 -621.22247314 43 39 40
-3337.33032227 -2170.39916992 -620.68341064 42 39 39
-3331.39233398 -2170.20312500 -621.87731934 46 43 40
-3328.12646484 -2172.84155273 -624.71337891 52 48 44
-3325.72167969 -2172.62011719 -626.07092285 53 49 44
-3321.93139648 -2172.86816406 -634.02691650 67 63 65
-3324.59619141 -2173.43872070 -629.52947998 57 51 46
-3322.65649414 -2173.14477539 -629.04760742 57 52 46
-3320.47998047 -2172.48144531 -629.37548828 57 53 49
-3320.10864258 -2171.92749023 -631.43530273 58 54 51
-3324.05590820 -2172.69726563 -627.65911865 54 49 44
-3320.66601563 -2170.35571289 -624.33618164 51 48 46
-3330.16357422 -2163.59155273 -621.35760498 41 39 41
-3327.73339844 -2166.70117188 -621.41430664 44 41 38
-3322.13500977 -2166.80810547 -621.83850098 42 41 40
-3325.34887695 -2167.29101563 -621.87182617 45 43 41
-3312.89501953 -2169.86157227 -706.40832520 135 134 148
-3317.81079102 -2171.14941406 -705.23309326 136 133 149
-3312.33740234 -2169.88940430 -702.61767578 135 132 147
-3316.31518555 -2170.74951172 -695.14172363 134 134 146
-3315.99560547 -2170.32592773 -690.88140869 135 132 148
-3309.53979492 -2169.22998047 -693.50500488 135 133 147
-3308.20703125 -2168.92968750 -696.78363037 134 134 147
-3309.85644531 -2168.92041016 -689.06542969 133 133 147
-3306.89184570 -2167.90722656 -690.19262695 133 133 147
-3294.83569336 -2164.92138672 -710.55078125 130 130 145
-3303.34448242 -2166.69677734 -710.50909424 133 133 148
-3305.38110352 -2168.02392578 -705.06097412 135 134 148
-3301.98217773 -2166.43261719 -702.06781006 134 131 146
-3300.46826172 -2165.97192383 -692.58630371 134 133 147
-3294.87548828 -2164.36767578 -692.40087891 134 133 147
-3309.78320313 -2168.87622070 -684.05529785 133 131 147
-3310.18432617 -2168.67065430 -681.16577148 133 131 148
-3307.35180664 -2167.85278320 -682.80297852 133 131 147
-3309.32128906 -2169.08715820 -677.84478760 133 131 147
-3306.54101563 -2167.56933594 -674.10217285 131 132 146
-3308.71679688 -2168.25244141 -673.81427002 131 132 146
-3316.94726563 -2171.07739258 -671.68218994 133 131 145
-3317.49365234 -2171.12622070 -664.13281250 127 126 141
-3310.79956055 -2169.70117188 -667.62622070 131 130 144
-3310.42285156 -2169.22509766 -662.21582031 128 126 140
-3300.25976563 -2165.83959961 -676.43621826 131 132 146
-3297.01708984 -2165.15722656 -682.61291504 133 131 148
-3303.53271484 -2167.31591797 -679.50909424 133 131 148
-3299.91210938 -2165.39428711 -671.06579590 132 130 144
-3300.58227539 -2165.63769531 -662.28649902 126 124 138
-3297.10961914 -2165.42749023 -670.10302734 133 131 145
-3294.31933594 -2163.80004883 -670.34039307 133 131 145
-3294.45385742 -2164.01464844 -667.95050049 131 130 144
-3298.66333008 -2165.35400391 -660.65460205 126 124 138
-3306.03784180 -2167.69970703 -671.93170166 132 131 145
-3303.87280273 -2167.05615234 -669.91961670 132 131 145
-3277.55664063 -2158.46435547 -693.55432129 133 132 146
-3287.54711914 -2162.49121094 -706.64367676 134 132 147
-3290.65917969 -2162.94091797 -709.55682373 134 133 147
-3291.32006836 -2163.14404297 -701.54748535 134 133 147
-3282.16967773 -2160.26440430 -704.96868896 134 132 146
-3286.27050781 -2161.50000000 -700.14257813 134 133 147
-3284.77124023 -2161.75292969 -698.76098633 134 132 146
-3282.24804688 -2160.44604492 -699.91870117 134 132 146
-3287.70068359 -2162.13159180 -687.31402588 133 131 145
-3286.31982422 -2161.61108398 -696.75268555 134 133 147
-3282.92382813 -2160.65112305 -696.87939453 134 132 146
-3282.33715820 -2160.63793945 -693.71881104 134 132 146
-3283.73144531 -2161.12084961 -692.08007813 134 132 146
-3280.02587891 -2159.75732422 -686.88659668 133 131 145
-3277.86938477 -2160.68579102 -686.55407715 133 131 145
-3277.23486328 -2159.04711914 -673.39379883 132 130 144
-3278.04956055 -2158.73461914 -661.52478027 126 124 138
-3287.74121094 -2162.24194336 -682.78399658 132 130 145
-3293.36376953 -2163.89672852 -681.24938965 133 131 147
-3285.36059570 -2161.16040039 -682.71179199 132 130 145
-3286.76611328 -2161.61376953 -681.06311035 132 131 145
-3282.51831055 -2160.27001953 -677.10906982 132 130 144
-3291.42919922 -2162.95678711 -660.73767090 127 125 139
-3284.82861328 -2161.36621094 -667.08117676 130 128 142
-3281.80078125 -2160.10083008 -670.64831543 131 129 143
-3286.10351563 -2161.67333984 -661.55242920 128 127 141
-3278.53808594 -2159.20971680 -684.70520020 132 131 145
-3279.85034180 -2159.56860352 -679.78649902 132 130 144
-3280.41625977 -2159.71752930 -668.92700195 131 129 144
-3311.43139648 -2125.49047852 -620.91711426 56 50 55
-3317.41821289 -2132.25341797 -620.94171143 54 48 50
-3314.52026367 -2132.13305664 -621.27868652 53 49 50
-3313.82543945 -2135.12866211 -621.43731689 52 48 50
-3308.45312500 -2134.82397461 -621.44177246 49 48 51
-3298.89135742 -2128.39501953 -621.22338867 52 48 50
-3304.59838867 -2130.94433594 -621.30871582 51 49 50
-3302.45092773 -2131.09277344 -621.31652832 51 49 50
-3298.95898438 -2130.81958008 -621.34289551 51 49 50
-3316.93261719 -2138.69946289 -620.77972412 51 47 49
-3317.82519531 -2143.88720703 -621.29937744 47 44 47
-3301.57128906 -2140.79614258 -621.05328369 47 44 47
-3304.61767578 -2143.58398438 -620.70581055 46 43 46
-3293.79370117 -2124.29809570 -621.00897217 54 49 52
-3286.80078125 -2122.92089844 -621.40209961 54 47 50
-3282.91992188 -2122.88305664 -620.85809326 55 48 51
-3282.95678711 -2125.32617188 -620.97760010 51 48 51
-3291.94506836 -2130.26196289 -621.36578369 52 48 49
-3285.09985352 -2133.94409180 -621.29779053 47 46 48
-3282.83203125 -2133.85766602 -620.84552002 48 46 48
-3288.54516602 -2137.28759766 -621.16058350 47 45 47
-3289.46191406 -2142.66625977 -620.42028809 46 43 44
-3281.12109375 -2138.58569336 -620.53259277 43 41 43
-3313.89721680 -2169.37548828 -654.91937256 122 121 135
-3315.83691406 -2170.50976563 -653.39117432 122 121 136
-3312.98486328 -2170.60009766 -650.11822510 118 120 129
-3309.67456055 -2168.98559570 -659.10510254 125 124 138
-3306.46630859 -2167.68139648 -654.75207520 124 122 136
-3316.33666992 -2170.48632813 -645.22167969 112 111 123
-3316.19628906 -2170.32031250 -641.88159180 106 105 113
-3316.17919922 -2170.31860352 -638.98162842 85 84 88
-3309.88330078 -2168.64892578 -643.66540527 113 112 121
-3307.22167969 -2168.04809570 -646.42279053 116 115 125
-3311.14331055 -2168.87524414 -636.35668945 73 69 78
-3297.79492188 -2164.92895508 -654.81372070 121 120 132
-3296.01464844 -2165.54321289 -660.18182373 127 125 139
-3296.38134766 -2164.56420898 -651.35241699 117 119 128
-3303.51220703 -2167.57763672 -651.05908203 119 118 130
-3300.06005859 -2165.88330078 -645.24591064 113 113 122
-3300.55590820 -2165.82128906 -642.27642822 108 107 115
-3294.07714844 -2163.70434570 -646.62017822 115 115 124
-3296.47338867 -2163.96459961 -642.40258789 107 105 113
-3294.30761719 -2164.09228516 -641.82031250 109 106 115
-3297.33081055 -2165.28637695 -635.36322021 71 69 71
-3313.66772461 -2153.99609375 -620.73272705 42 41 42
-3310.50439453 -2153.48559570 -621.28961182 41 40 41
-3306.69384766 -2153.69067383 -621.19561768 40 39 40
-3313.50146484 -2160.18457031 -621.19122314 40 40 40
-3303.88134766 -2152.91284180 -621.17291260 40 39 40
-3299.67333984 -2152.54223633 -620.25860596 43 39 39
-3296.75561523 -2153.20190430 -620.82537842 41 37 37
-3300.60058594 -2156.30029297 -620.76861572 41 37 36
-3300.72949219 -2158.93750000 -621.35821533 43 39 36
-3296.78491211 -2159.74780273 -622.15386963 48 41 41
-3316.39916992 -2170.68627930 -635.27172852 69 67 67
-3310.18530273 -2169.21728516 -630.68560791 57 55 57
-3312.08129883 -2168.68798828 -626.30767822 54 48 43
-3303.11328125 -2165.58422852 -626.07910156 54 48 47
-3299.92846680 -2165.87353516 -627.45568848 54 51 49
-3298.40673828 -2165.31567383 -629.28430176 57 53 53
-3296.07739258 -2162.75390625 -624.62249756 50 45 41
-3276.78149414 -2158.55468750 -655.70349121 119 120 132
-3277.12255859 -2158.37377930 -642.08392334 107 105 114
-3276.83789063 -2158.83227539 -639.13348389 93 92 96
-3290.02880859 -2162.63110352 -652.73632813 121 122 134
-3287.63037109 -2161.55834961 -650.40399170 117 117 129
-3292.58422852 -2163.05883789 -652.97882080 119 121 131
-3286.74243164 -2161.82666016 -657.33300781 123 122 136
-3282.34033203 -2160.21801758 -657.49877930 123 122 136
-3287.87036133 -2161.95654297 -645.62408447 114 113 123
-3287.48315430 -2161.40087891 -643.66387939 111 109 119
-3288.07470703 -2161.53173828 -637.74438477 81 77 82
-3285.06127930 -2161.14819336 -643.31140137 113 111 121
-3286.15551758 -2162.01879883 -636.94238281 81 80 84
-3282.26708984 -2160.32958984 -637.03881836 76 76 78
-3283.99340820 -2161.28564453 -635.53027344 72 72 73
-3280.94628906 -2159.81420898 -655.76751709 120 120 133
-3288.14184570 -2152.86376953 -621.17657471 42 38 37
-3285.11499023 -2151.66748047 -621.39367676 42 38 38
-3279.05322266 -2148.45434570 -621.06811523 43 40 40
-3291.33105469 -2163.10595703 -633.90747070 67 63 64
-3288.73535156 -2161.81420898 -627.11511230 53 51 46
-3284.46118164 -2161.21215820 -630.86077881 61 57 55
-3281.82421875 -2160.56127930 -630.73822021 61 58 55
-3363.37597656 -2185.14599609 -710.12701416 136 136 151
-3356.60693359 -2183.20629883 -707.97052002 138 136 150
-3358.26586914 -2183.91870117 -703.35211182 139 138 151
-3367.47070313 -2186.80908203 -695.39093018 138 137 152
-3367.69433594 -2186.37548828 -688.62127686 135 135 150
-3346.61499023 -2180.00268555 -704.84088135 136 136 149
-3344.98681641 -2179.27124023 -709.48937988 136 133 148
-3355.27368164 -2182.94580078 -710.12921143 136 136 149
-3351.43090820 -2181.73754883 -706.39550781 138 136 151
-3350.91137695 -2181.89599609 -699.68487549 134 134 149
-3347.43530273 -2180.52905273 -685.72161865 133 132 147
-3355.00659180 -2182.72167969 -696.05889893 135 135 150
-3353.86621094 -2181.99682617 -693.18792725 135 134 149
-3350.84741211 -2181.85229492 -695.15490723 134 134 149
-3350.37426758 -2181.22314453 -692.10449219 134 133 148
-3355.66943359 -2182.92431641 -686.11962891 133 132 147
-3350.68115234 -2180.89355469 -688.17492676 135 134 149
-3362.29882813 -2185.59716797 -680.00579834 135 133 148
-3367.97802734 -2186.89306641 -675.71142578 136 134 148
-3363.51123047 -2185.69189453 -675.01708984 136 134 148
-3361.15161133 -2184.85400391 -684.54479980 133 132 147
-3356.27343750 -2183.05517578 -677.90020752 135 133 147
-3362.88476563 -2185.67700195 -671.72637939 135 133 147
-3363.16406250 -2185.29614258 -667.15679932 134 132 146
-3367.64160156 -2186.54711914 -665.50122070 133 131 145
-3362.67114258 -2185.45678711 -663.76617432 131 130 145
-3363.31127930 -2184.74975586 -660.92712402 129 126 144
-3357.78393555 -2183.63012695 -666.90161133 131 129 143
-3360.91503906 -2184.71020508 -666.82458496 131 130 144
-3356.10131836 -2182.95483398 -664.15002441 130 129 143
-3358.46582031 -2182.97387695 -660.58251953 129 127 141
-3344.30395508 -2179.47851563 -684.62860107 134 133 147
-3343.45117188 -2179.09521484 -681.58782959 135 133 147
-3346.75585938 -2180.49047852 -676.18090820 134 133 147
-3345.32031250 -2179.27514648 -677.01971436 134 132 146
-3353.74780273 -2182.76000977 -682.66772461 135 133 148
-3351.25390625 -2181.72485352 -684.28527832 135 134 149
-3353.01977539 -2181.82006836 -676.32708740 135 134 148
-3349.66113281 -2181.27075195 -673.43371582 134 133 147
-3347.05541992 -2180.16967773 -669.33129883 133 132 146
-3344.31347656 -2179.66479492 -668.53857422 134 133 147
-3347.09838867 -2180.30932617 -661.22131348 130 128 142
-3354.10913086 -2181.73999023 -670.89819336 132 130 144
-3353.24755859 -2182.30468750 -660.54718018 128 126 141
-3351.41113281 -2181.38427734 -660.79547119 128 127 141
-3348.91040039 -2181.86206055 -671.10278320 135 134 148
-3342.69360352 -2178.62231445 -705.79711914 137 135 149
-3334.06323242 -2176.27319336 -709.35870361 136 135 150
-3331.74389648 -2175.41430664 -709.68652344 136 135 150
-3331.83203125 -2175.58642578 -705.10662842 135 134 148
-3336.04052734 -2177.51831055 -706.16052246 137 136 151
-3336.80712891 -2176.98559570 -700.53149414 135 135 149
-3334.36376953 -2176.01171875 -699.23907471 136 133 149
-3332.10791016 -2175.25610352 -702.34692383 135 134 147
-3340.40649414 -2178.05151367 -693.56488037 135 134 149
-3334.42211914 -2176.91381836 -696.64898682 136 133 148
-3335.36499023 -2176.70849609 -692.53002930 135 132 148
-3331.47509766 -2176.01074219 -696.06610107 135 133 148
-3333.15917969 -2175.99438477 -693.90789795 135 132 148
-3330.99218750 -2175.37109375 -693.02581787 135 133 148
-3333.86547852 -2176.18041992 -690.84851074 134 133 146
-3328.21313477 -2174.61621094 -698.53302002 135 133 147
-3328.80615234 -2174.67749023 -693.85357666 135 133 148
-3327.67675781 -2173.94311523 -690.43267822 135 135 148
-3340.57617188 -2178.43457031 -679.73498535 135 134 148
-3340.62646484 -2178.53540039 -675.70501709 135 133 148
-3342.72216797 -2178.98535156 -674.37707520 135 133 148
-3334.46899414 -2176.32128906 -682.68908691 135 133 147
-3334.24291992 -2176.04150391 -679.43902588 135 133 147
-3332.84643555 -2175.73730469 -676.50762939 134 132 146
-3340.53613281 -2178.47998047 -668.26489258 135 134 148
-3337.94970703 -2177.30053711 -667.70251465 134 132 146
-3337.55957031 -2177.62524414 -665.38201904 132 131 145
-3334.20288086 -2176.11669922 -666.87890625 132 131 145
-3331.24511719 -2175.98437500 -667.71588135 131 130 145
-3333.70043945 -2176.24707031 -664.07843018 130 130 145
-3327.85815430 -2174.37548828 -673.20281982 133 131 146
-3328.14746094 -2174.02490234 -667.55310059 131 130 145
-3329.85278320 -2174.89843750 -660.49468994 128 127 143
-3366.62841797 -2186.90576172 -654.57000732 126 126 136
-3365.29687500 -2185.94384766 -651.78881836 118 117 124
-3367.15429688 -2186.83496094 -651.54058838 119 118 126
-3362.81225586 -2184.96850586 -651.68652344 118 117 125
-3361.23706055 -2184.34008789 -659.33502197 129 126 142
-3359.14721680 -2184.01757813 -650.15289307 119 117 131
-3357.30834961 -2183.92797852 -651.24108887 120 119 133
-3355.98681641 -2182.96630859 -648.49987793 117 115 130
-3362.65625000 -2184.84985352 -642.40637207 109 108 116
-3368.28735352 -2186.06420898 -639.19189453 90 87 92
-3355.85717773 -2183.63012695 -643.00958252 113 111 121
-3345.43164063 -2179.71215820 -649.77972412 118 117 131
-3353.90673828 -2182.40917969 -657.98791504 127 126 140
-3350.91381836 -2181.61230469 -649.25488281 116 115 129
-3344.91992188 -2179.81225586 -647.54907227 118 116 129
-3345.14160156 -2179.39868164 -641.81951904 109 108 115
-3345.89453125 -2179.68701172 -638.58020020 87 87 90
-3346.14379883 -2180.05566406 -635.45037842 74 73 73
-3343.78198242 -2179.24560547 -636.40808105 75 75 75
-3352.98266602 -2182.10986328 -643.26702881 111 109 118
-3367.48095703 -2186.65234375 -632.75097656 61 60 58
-3357.74829102 -2183.08935547 -633.89172363 65 62 65
-3357.72290039 -2183.09716797 -629.22167969 54 51 50
-3355.90234375 -2183.02832031 -630.92980957 57 55 55
-3361.93945313 -2184.79931641 -630.89562988 59 57 57
-3360.11938477 -2185.56054688 -630.54357910 59 57 58
-3365.93383789 -2178.97460938 -621.35107422 44 41 39
-3367.53344727 -2180.32666016 -621.53240967 44 40 41
-3358.86743164 -2177.42456055 -621.64410400 43 40 40
-3353.72021484 -2180.07128906 -624.44818115 50 46 39
-3345.21289063 -2176.44433594 -623.62017822 50 46 40
-3350.19140625 -2181.59008789 -632.54418945 64 62 63
-3352.69042969 -2174.63696289 -620.40838623 42 39 38
-3346.63378906 -2175.95776367 -622.21179199 46 44 40
-3340.71484375 -2177.97412109 -659.20520020 126 125 139
-3340.31518555 -2178.29809570 -656.32470703 124 123 137
-3338.37426758 -2178.03393555 -655.81280518 123 122 137
-3340.84375000 -2178.25659180 -649.82531738 118 117 131
-3334.58740234 -2175.97900391 -658.16931152 125 124 140
-3332.79736328 -2176.68188477 -660.16729736 128 128 143
-3333.33593750 -2175.81030273 -655.14807129 121 121 136
-3332.15332031 -2175.80590820 -657.22680664 123 123 138
-3332.67016602 -2175.74438477 -653.03741455 120 119 134
-3333.96777344 -2175.97265625 -647.98870850 117 114 128
-3341.75122070 -2177.92968750 -645.65631104 117 113 124
-3340.95410156 -2178.51831055 -639.85528564 101 102 105
-3335.65234375 -2176.73657227 -645.51031494 117 113 126
-3336.40429688 -2177.01489258 -643.41101074 111 109 122
-3332.91333008 -2176.18139648 -643.55749512 112 111 122
-3334.19116211 -2176.38891602 -639.06878662 93 92 100
-3334.53417969 -2176.13110352 -636.14929199 69 69 73
-3332.63989258 -2175.82983398 -640.29730225 101 100 110
-3326.50708008 -2174.26000977 -658.20141602 123 123 138
-3327.91333008 -2173.91015625 -646.41290283 113 113 123
-3329.55932617 -2173.86181641 -643.65460205 110 111 121
-3329.41894531 -2174.50585938 -639.38427734 90 89 96
-3328.00463867 -2174.13110352 -637.05291748 76 73 79
-3337.44409180 -2176.19921875 -625.94219971 53 50 44
-3341.10498047 -2178.04028320 -627.68560791 55 51 45
-3342.68383789 -2179.42138672 -627.30688477 55 51 45
-3335.03857422 -2176.87011719 -633.96960449 65 64 66
-3465.59082031 -2165.96704102 -758.47747803 122 121 129
-3417.04321289 -2151.79882813 -760.07049561 111 110 118
-3463.41064453 -2165.64404297 -759.11529541 120 119 125
-3440.22534180 -2159.01660156 -759.99279785 114 111 118
-3418.01733398 -2151.49511719 -758.25158691 120 119 128
-3370.23095703 -2137.38525391 -757.40527344 123 119 126
-3454.45581055 -2162.46069336 -758.85681152 115 117 127
-3441.37329102 -2158.87963867 -758.08410645 115 115 121
-3395.01049805 -2144.68408203 -757.74932861 125 123 126
-3392.46484375 -2144.47753906 -759.51672363 121 120 122
-3432.27026367 -2201.82397461 -720.42462158 132 130 145
-3455.11401367 -2208.45874023 -720.74670410 131 129 136
-3429.67041016 -2203.40576172 -718.28149414 131 133 147
-3383.01928711 -2188.06860352 -719.49682617 131 130 144
-3378.64624023 -2186.21069336 -720.06268311 131 131 144
-3450.21948242 -2161.98950195 -760.02252197 112 109 112
-3438.55590820 -2158.49218750 -758.31121826 118 118 124
-3436.90234375 -2158.76000977 -760.33941650 107 104 113
-3443.25463867 -2160.42285156 -759.41558838 113 110 116
-3411.87988281 -2149.99047852 -758.54559326 117 116 126
-3404.99340820 -2148.17700195 -759.15887451 117 116 121
-3373.17285156 -2138.90869141 -759.48797607 120 117 124
-3419.21948242 -2153.00244141 -759.73248291 115 113 120
-3420.00219727 -2198.13427734 -720.07269287 131 130 146
-3460.96362305 -2211.76367188 -719.44201660 129 129 137
-3445.81127930 -2206.26293945 -720.27758789 133 131 143
-3454.37597656 -2210.00146484 -719.28558350 128 127 135
-3454.27465820 -2211.42773438 -716.52520752 126 124 136
-3439.23120117 -2205.11108398 -719.39099121 136 133 147
-3410.78271484 -2196.65185547 -719.41357422 131 132 144
-3409.95288086 -2198.01049805 -716.88238525 130 131 144
-3399.11914063 -2191.76440430 -720.47259521 133 131 147
-3404.31469727 -2196.25488281 -717.72698975 133 131 147
-3381.16210938 -2187.16723633 -719.65502930 131 130 144
-3375.04077148 -2187.94409180 -716.99847412 132 131 146
-3373.32885742 -2183.92675781 -720.45770264 132 131 145
-3392.02490234 -2191.25366211 -719.02539063 134 132 148
-3459.25390625 -2164.45458984 -758.22131348 116 117 126
-3456.64404297 -2164.35571289 -760.01861572 103 102 108
-3455.68090820 -2163.97802734 -756.95770264 117 117 128
-3446.30175781 -2160.29882813 -759.25891113 115 113 117
-3444.90820313 -2160.15502930 -757.38739014 114 114 120
-3434.36206055 -2157.19189453 -758.61718750 114 114 121
-3439.91723633 -2164.18627930 -751.23132324 119 120 127
-3430.74365234 -2156.52368164 -759.72357178 109 105 112
-3423.95581055 -2153.51245117 -757.29730225 120 119 125
-3422.18945313 -2153.60571289 -758.80541992 118 117 123
-3412.64257813 -2150.94067383 -760.30621338 109 108 118
-3402.74291992 -2147.62109375 -759.31658936 116 115 117
-3398.55590820 -2146.18017578 -758.07257080 131 128 131
-3384.42749023 -2142.65039063 -760.44879150 104 100 100
-3418.15649414 -2157.22290039 -751.45037842 119 116 125
-3426.11035156 -2201.20874023 -719.28839111 130 133 147
-3422.96020508 -2199.55786133 -719.98547363 131 132 147
-3419.87524414 -2201.29077148 -716.77191162 134 135 147
-3463.87011719 -2212.97509766 -718.92468262 129 129 138
-3465.46557617 -2215.00659180 -717.30590820 129 129 138
-3466.55639648 -2216.41821289 -713.65679932 134 131 145
-3463.67675781 -2216.09838867 -713.29382324 127 125 137
-3457.81762695 -2211.07324219 -719.26898193 131 129 136
-3455.67797852 -2212.46142578 -714.68640137 125 124 136
-3455.52807617 -2213.06542969 -711.60607910 124 124 135
-3450.93798828 -2208.01928711 -720.17248535 128 125 137
-3447.70068359 -2207.10546875 -720.12939453 131 128 140
-3451.11059570 -2210.65698242 -717.56207275 126 123 137
-3441.49511719 -2207.18872070 -718.18292236 136 133 147
-3438.51391602 -2206.64477539 -717.94000244 135 133 148
-3438.51513672 -2207.54370117 -712.38970947 138 137 150
-3432.77416992 -2205.83447266 -714.37420654 134 134 147
-3435.19018555 -2206.46728516 -715.92657471 134 132 147
-3424.43896484 -2203.99560547 -713.60601807 137 138 149
-3416.97460938 -2199.09912109 -718.79937744 131 132 145
-3414.60766602 -2199.26879883 -717.60687256 132 132 146
-3408.01782227 -2196.20629883 -719.10083008 131 131 144
-3408.98291016 -2198.31323242 -714.74127197 133 134 148
-3407.29077148 -2197.74902344 -717.07971191 132 131 146
-3399.71899414 -2193.38818359 -719.24279785 133 131 147
-3369.94531250 -2184.24804688 -719.52410889 131 130 144
-3392.09033203 -2192.99682617 -717.27502441 135 133 149
-3389.03271484 -2192.97949219 -713.50189209 136 135 150
-3385.61108398 -2192.43872070 -713.40838623 135 134 149
-3383.73339844 -2191.52685547 -714.18670654 134 133 148
-3377.78710938 -2189.24829102 -713.02099609 135 134 149
-3460.93750000 -2164.94897461 -757.11291504 114 115 124
-3459.59692383 -2164.84863281 -760.30151367 111 111 116
-3449.05419922 -2161.36401367 -758.25140381 116 115 120
-3463.92895508 -2167.77563477 -760.07537842 97 93 92
-3460.86865234 -2166.39819336 -760.65252686 101 98 100
-3432.97680664 -2156.99926758 -760.13580322 111 108 117
-3424.02246094 -2154.30639648 -760.38708496 102 97 98
-3425.50390625 -2154.66210938 -756.57861328 118 117 122
-3415.17211914 -2151.01684570 -759.65869141 109 107 116
-3407.90087891 -2148.84790039 -758.23168945 115 114 121
-3407.74609375 -2150.23364258 -760.08117676 110 108 116
-3389.34765625 -2143.58789063 -758.38372803 119 116 118
-3386.86010742 -2142.69238281 -758.18127441 117 115 118
-3392.78002930 -2146.42114258 -760.50659180 87 86 87
-3377.89160156 -2139.56909180 -759.21282959 124 120 129
-3373.28881836 -2139.09252930 -756.66809082 124 118 126
-3370.70532227 -2138.79492188 -759.58551025 122 116 125
-3414.72729492 -2153.65039063 -753.96771240 113 111 120
-3427.78100586 -2202.56298828 -718.43981934 130 133 147
-3423.86572266 -2201.58325195 -717.98602295 132 133 147
-3421.01147461 -2200.31372070 -718.55328369 133 133 147
-3419.33276367 -2202.24951172 -712.57110596 136 136 150
-3458.59033203 -2212.91357422 -717.34930420 128 128 134
-3451.95019531 -2209.32836914 -718.91320801 128 125 137
-3445.51367188 -2208.34252930 -718.52679443 135 133 147
-3447.55908203 -2210.18066406 -714.54852295 135 132 147
-3446.12744141 -2210.00537109 -712.02697754 136 135 149
-3442.26953125 -2208.22778320 -714.73352051 137 135 150
-3436.71972656 -2206.81542969 -714.23809814 136 135 149
-3438.84716797 -2207.93750000 -715.65002441 136 134 149
-3435.88793945 -2204.89355469 -718.56768799 134 131 146
-3432.25878906 -2204.29492188 -717.91400146 132 131 146
-3429.45288086 -2204.79687500 -712.68103027 134 133 146
-3413.15942383 -2196.50244141 -719.99597168 131 132 144
-3415.16259766 -2200.84985352 -712.92712402 135 134 149
-3402.54199219 -2194.69628906 -718.66540527 133 131 147
-3394.48559570 -2194.60791016 -712.72711182 136 135 150
-3401.15185547 -2196.17260742 -711.64367676 136 135 150
-3397.47802734 -2195.30322266 -715.77008057 135 133 148
-3379.36254883 -2193.37426758 -760.37182617 74 68 49
-3375.60546875 -2185.38452148 -719.98968506 132 131 144
-3377.27246094 -2187.65893555 -717.67089844 132 131 145
-3373.67041016 -2186.05078125 -718.53747559 132 131 145
-3369.23022461 -2185.73120117 -717.50299072 131 131 146
-3387.34448242 -2189.05395508 -719.77099609 133 131 146
-3388.98437500 -2190.42724609 -718.91241455 133 131 146
-3391.67211914 -2194.08081055 -714.17431641 135 135 150
-3388.81518555 -2192.71044922 -711.35168457 136 135 151
-3380.85620117 -2190.89648438 -713.41381836 133 133 148
-3374.62353516 -2188.24707031 -712.47802734 136 135 151
-3367.81958008 -2137.31372070 -759.68292236 126 120 129
-3343.67114258 -2130.00878906 -758.77947998 118 114 122
-3339.36010742 -2173.80590820 -720.06481934 132 130 144
-3292.71875000 -2159.28955078 -720.24981689 128 126 141
-3342.75756836 -2175.25610352 -719.82800293 136 134 149
-3331.23071289 -2126.35278320 -759.28747559 111 109 116
-3334.93750000 -2171.68603516 -720.22082520 130 130 143
-3330.43945313 -2167.02197266 -722.39721680 130 130 144
-3300.59814453 -2162.63159180 -719.26721191 128 126 140
-3292.63256836 -2160.80688477 -718.62939453 128 127 141
-3360.82226563 -2135.01562500 -759.39611816 120 116 124
-3357.47070313 -2133.70678711 -758.47302246 125 119 127
-3325.23095703 -2124.41259766 -758.70172119 120 117 125
-3328.10888672 -2173.44628906 -716.89331055 131 131 147
-3323.41357422 -2170.01562500 -719.28918457 129 129 145
-3307.36547852 -2163.32031250 -720.64410400 130 128 141
-3310.83862305 -2166.77441406 -718.55688477 130 128 142
-3305.51806641 -2166.46118164 -717.27142334 128 127 141
-3289.42651367 -2157.70312500 -720.51678467 128 127 142
-3282.97167969 -2155.59570313 -720.73059082 128 128 143
-3278.59790039 -2155.64892578 -719.60607910 130 127 141
-3286.94409180 -2160.68994141 -717.35357666 128 129 144
-3336.55346680 -2173.96875000 -718.47192383 130 130 143
-3336.19970703 -2175.16552734 -716.47131348 130 130 145
-3356.19531250 -2135.08984375 -760.00128174 100 98 105
-3348.27539063 -2131.54541016 -759.27392578 116 110 119
-3347.46899414 -2131.22412109 -757.44311523 119 114 123
-3366.17358398 -2141.34179688 -751.16021729 126 123 133
-3340.72363281 -2129.84692383 -760.10650635 98 93 101
-3334.43676758 -2127.55566406 -759.70050049 111 109 115
-3331.34667969 -2126.53662109 -756.52758789 117 116 124
-3325.51538086 -2168.12500000 -721.04180908 130 130 146
-3329.80932617 -2171.84057617 -718.66540527 130 130 146
-3321.06591797 -2168.31518555 -719.87707520 129 129 145
-3323.16650391 -2172.96704102 -713.81817627 133 132 146
-3307.88500977 -2164.95068359 -719.39422607 130 128 141
-3313.27270508 -2166.96728516 -718.96942139 130 129 143
-3317.40673828 -2171.29638672 -713.11260986 132 131 146
-3302.66943359 -2163.96142578 -718.84912109 128 127 141
-3301.89013672 -2166.18188477 -713.27770996 130 130 146
-3296.13671875 -2160.20019531 -720.15319824 127 125 139
-3287.55346680 -2159.10229492 -718.87451172 128 128 144
-3281.23510742 -2156.28979492 -719.81860352 128 127 141
-3277.12622070 -2156.75341797 -717.96429443 131 128 141
-3289.35620117 -2160.95190430 -717.20599365 129 128 143
-3292.09130859 -2162.53613281 -713.73852539 129 128 144
-3289.21459961 -2163.21679688 -712.58532715 130 128 143
-3358.52856445 -2179.99023438 -719.87322998 130 130 144
-3364.67944336 -2181.92578125 -719.92919922 132 131 146
-3363.82080078 -2185.71411133 -713.77740479 134 133 148
-3360.94531250 -2184.27319336 -712.14471436 137 136 151
-3346.66821289 -2176.63598633 -719.50170898 133 131 146
-3345.71923828 -2174.44873047 -721.06121826 133 131 146
-3348.27661133 -2180.53857422 -713.83251953 138 135 150
-3354.94897461 -2182.47363281 -712.60900879 137 136 149
-3341.10913086 -2176.27368164 -718.24597168 132 130 144
-3338.91088867 -2178.17993164 -712.53338623 131 130 144
-3363.83081055 -2136.67138672 -759.78887939 126 122 130
-3365.05004883 -2136.00659180 -756.96032715 126 123 132
-3356.27294922 -2133.67089844 -756.62170410 124 119 128
-3354.67285156 -2133.08959961 -757.77020264 124 119 127
-3353.56713867 -2133.16821289 -759.62902832 117 111 118
-3351.83642578 -2134.71337891 -760.13690186 90 82 83
-3337.53710938 -2129.43530273 -759.96331787 103 100 106
-3337.89135742 -2128.37695313 -756.41387939 119 117 124
-3329.83300781 -2125.23828125 -758.37628174 113 112 119
-3322.12109375 -2123.26367188 -759.87872314 107 103 109
-3332.25610352 -2171.16333008 -719.39807129 130 130 145
-3331.78857422 -2172.97631836 -717.77722168 130 130 146
-3329.39379883 -2169.57348633 -720.12548828 130 130 146
-3326.90209961 -2171.71948242 -718.35241699 130 131 146
-3321.00854492 -2170.66430664 -717.95660400 130 130 145
-3321.65478516 -2173.28930664 -712.42657471 133 132 146
-3315.47705078 -2168.48217773 -718.46130371 128 128 143
-3307.15356445 -2168.05322266 -712.38281250 131 131 147
-3300.77783203 -2164.52929688 -717.46697998 128 127 141
-3296.79931641 -2162.01635742 -718.81341553 127 126 141
-3294.91088867 -2164.21435547 -712.42102051 128 128 144
-3304.46411133 -2167.45068359 -712.76007080 131 131 147
-3285.17138672 -2158.86132813 -718.49212646 128 128 143
-3282.64721680 -2158.40478516 -718.14959717 129 128 142
-3290.98950195 -2163.41430664 -711.49707031 131 130 144
-3284.22167969 -2160.75561523 -715.27069092 130 128 142
-3282.26904297 -2160.34033203 -712.61877441 133 131 145
-3366.65991211 -2183.01196289 -719.63092041 131 131 146
-3362.36474609 -2184.50805664 -714.57617188 134 133 148
-3360.13598633 -2183.92260742 -714.20397949 138 136 151
-3357.18627930 -2183.14916992 -711.22113037 139 136 151
-3350.07592773 -2178.07690430 -719.25488281 133 130 145
-3351.65429688 -2179.48779297 -718.37622070 133 130 145
-3344.33544922 -2176.67724609 -718.94927979 136 134 149
-3347.66699219 -2180.58471680 -711.16192627 136 132 148
-3344.59082031 -2179.56762695 -713.96887207 135 133 148
-3345.60375977 -2180.10595703 -711.28979492 135 132 148
-3354.50073242 -2181.83666992 -714.61859131 136 136 149
-3349.98925781 -2181.32397461 -712.56408691 137 136 149
-3341.72680664 -2178.81811523 -714.36608887 131 130 144
-3342.82299805 -2178.73925781 -711.88732910 133 131 145
-3333.69946289 -2175.71020508 -714.12847900 132 131 146
-3426.29980469 -2239.22509766 -761.23980713 73 69 46
-3981.46899414 -2325.34228516 -760.43591309 122 111 118
-3989.19775391 -2376.31689453 -717.21319580 136 127 139
-4009.17749023 -2334.33081055 -760.94970703 101 93 100
-3996.07031250 -2368.41699219 -731.18920898 131 124 130
-4015.32519531 -2384.87036133 -743.29779053 128 111 102
-3988.18139648 -2376.76708984 -691.06298828 129 124 141
-3990.59008789 -2377.97949219 -717.00109863 134 125 136
-3989.20776367 -2378.24096680 -688.81121826 131 126 144
-4015.86181641 -2385.25146484 -717.30731201 135 125 132
-4016.21850586 -2384.57519531 -690.03778076 132 129 146
-3994.30615234 -2337.87280273 -749.04010010 135 127 138
-4011.09423828 -2365.95556641 -744.42767334 120 108 106
-3988.51464844 -2367.44189453 -724.82220459 127 121 132
-4003.30053711 -2369.53320313 -738.21618652 122 110 110
-4009.45874023 -2378.26562500 -744.43591309 127 113 114
-3991.15454102 -2377.96972656 -725.67102051 132 122 129
-4002.06054688 -2376.92919922 -738.38922119 128 112 112
-4002.02490234 -2381.00610352 -730.85510254 129 117 119
-4016.27416992 -2393.52636719 -740.45898438 116 118 104
-4016.09790039 -2348.48901367 -745.68377686 130 119 122
-4017.06030273 -2374.68164063 -750.96752930 113 100 94
-4015.28295898 -2385.03393555 -730.90759277 128 114 111
-3988.46704102 -2376.04101563 -704.70361328 124 119 134
-3987.69848633 -2376.37890625 -677.47351074 125 122 137
-4001.52612305 -2381.06250000 -716.65521240 135 127 137
-4001.73974609 -2380.68164063 -704.69549561 134 130 147
-3988.54467773 -2378.35009766 -676.88128662 128 125 139
-4001.82910156 -2381.18041992 -690.90502930 132 131 148
-4001.72436523 -2380.99853516 -677.99517822 127 124 141
-4015.91210938 -2385.29541016 -677.75720215 133 128 144
-3985.04492188 -2332.91406250 -750.99737549 140 132 138
-3989.37841797 -2334.98193359 -750.38421631 143 131 138
-4002.68432617 -2332.31518555 -760.88342285 125 117 125
-3996.79687500 -2336.98510742 -750.50030518 135 127 138
-4011.78222656 -2342.61401367 -749.48077393 139 132 137
-4029.78149414 -2340.59228516 -760.89801025 116 109 114
-4012.38720703 -2361.70678711 -744.36169434 116 105 106
-4009.79907227 -2370.59741211 -744.33349609 129 114 111
-3995.78710938 -2370.54736328 -731.40722656 128 120 125
-3995.13769531 -2372.89379883 -731.37500000 128 119 123
-3986.84594727 -2367.55419922 -723.46252441 126 120 131
-3988.45605469 -2372.63793945 -725.26702881 130 123 130
-4004.20361328 -2365.47314453 -737.90002441 122 113 116
-4001.62622070 -2369.27319336 -736.52691650 124 114 117
-4008.94482422 -2363.62670898 -741.69061279 123 114 117
-4007.76513672 -2369.78637695 -742.20477295 123 108 106
-3990.74243164 -2377.81665039 -723.65130615 137 128 136
-3995.39208984 -2378.84790039 -722.49902344 134 126 135
-4006.16821289 -2382.58081055 -737.53247070 129 113 113
-4008.06909180 -2375.88598633 -743.47869873 121 106 105
-4008.49584961 -2383.24291992 -737.60119629 128 111 109
-4001.68725586 -2380.88891602 -723.74530029 132 124 132
-4005.95874023 -2382.77099609 -730.94238281 128 114 113
-4005.40478516 -2382.78051758 -723.27252197 132 122 129
-4008.45214844 -2382.97827148 -729.87152100 131 118 119
-4008.47900391 -2383.03881836 -723.38140869 132 121 128
-4014.77319336 -2358.07055664 -745.19458008 117 107 110
-4018.81616211 -2355.04956055 -748.02661133 117 107 110
-4015.29101563 -2363.61108398 -747.59899902 120 108 106
-4013.92602539 -2369.82348633 -747.98321533 128 114 111
-4015.20239258 -2374.97827148 -749.50769043 120 107 104
-4015.26708984 -2384.98120117 -736.40771484 128 113 105
-4015.46777344 -2385.39770508 -724.44732666 134 124 127
-3987.79931641 -2376.34008789 -710.38348389 127 120 133
-3988.06420898 -2376.28955078 -702.54351807 125 120 135
-3988.02294922 -2376.78320313 -697.63299561 127 122 139
-3987.81176758 -2377.04760742 -684.56280518 130 125 143
-3989.80932617 -2378.02270508 -714.73132324 134 127 139
-3990.10742188 -2377.91088867 -710.22137451 129 122 134
-3994.71191406 -2378.89428711 -716.07922363 135 126 135
-3990.93457031 -2378.33715820 -703.92071533 126 121 135
-3988.50292969 -2378.15332031 -696.08148193 129 124 141
-3995.04199219 -2378.57055664 -695.16937256 135 130 148
-4001.61767578 -2381.07592773 -711.10522461 134 128 140
-4005.63769531 -2382.71533203 -716.91247559 135 126 136
-4005.89916992 -2382.63696289 -711.01251221 136 129 142
-4008.51416016 -2383.08789063 -716.42138672 139 129 142
-4008.61450195 -2383.09033203 -711.35131836 132 124 141
-4002.20751953 -2381.30126953 -696.74481201 140 135 152
-4004.50708008 -2382.80273438 -696.60272217 139 134 152
-4009.20190430 -2383.29638672 -697.52099609 136 132 150
-3990.31909180 -2378.01635742 -690.90118408 130 125 143
-3989.77905273 -2377.97460938 -683.93127441 129 125 146
-3995.57250977 -2378.71240234 -690.64910889 132 128 145
-3994.86621094 -2378.79272461 -684.50921631 126 121 139
-3990.83349609 -2377.96264648 -670.49108887 125 115 128
-3994.90161133 -2378.84228516 -678.26922607 127 122 137
-3994.80737305 -2378.57470703 -671.06939697 125 119 131
-4004.86376953 -2382.68090820 -689.23272705 131 126 146
-4004.51318359 -2382.94995117 -683.73248291 130 125 145
-4008.45947266 -2383.41088867 -690.96112061 133 128 147
-4001.98608398 -2380.91992188 -671.88519287 127 122 139
-4003.31054688 -2382.92797852 -675.89288330 129 126 144
-4005.19750977 -2382.71166992 -670.72259521 126 121 140
-4008.74169922 -2382.60644531 -677.04180908 129 127 148
-4015.53100586 -2385.19824219 -704.54742432 128 124 135
-4015.30419922 -2384.99755859 -697.92767334 136 131 149
-4015.33325195 -2384.75830078 -684.28790283 134 129 149
-4015.43920898 -2385.22631836 -671.75738525 133 128 145
-3985.13208008 -2326.21289063 -759.83410645 128 118 125
-3988.45239258 -2327.24633789 -759.44219971 131 121 128
-3992.27709961 -2335.04052734 -750.95343018 140 130 138
-3999.00000000 -2330.36718750 -759.50628662 129 121 130
-3997.23022461 -2330.88745117 -760.69628906 122 114 121
-4004.89721680 -2333.11059570 -759.55200195 123 116 126
-4006.04541016 -2345.29711914 -745.41961670 143 135 141
-4007.62670898 -2344.05737305 -747.01037598 138 131 136
-4012.46508789 -2334.93383789 -759.32830811 133 128 137
-4015.96728516 -2336.13769531 -759.91607666 128 121 125
-4019.43432617 -2336.97167969 -759.25439453 132 125 128
-4013.65087891 -2341.99316406 -750.60089111 139 132 137
-4018.16284180 -2347.74365234 -746.92401123 130 119 122
-4023.29296875 -2337.54687500 -759.28277588 132 126 130
-4026.62524414 -2338.84179688 -759.76068115 120 114 120
-3999.08178711 -2357.02587891 -760.17980957 57 46 41
-4001.41088867 -2360.08471680 -759.65612793 60 49 43
-4003.07177734 -2360.72924805 -761.19500732 59 48 42
-4006.45581055 -2361.62451172 -761.25329590 61 50 45
-4011.12988281 -2358.33129883 -760.78527832 62 51 47
-4008.45166016 -2356.29003906 -759.12799072 65 51 46
-4003.17700195 -2363.39721680 -762.33239746 56 45 40
-4009.52343750 -2372.70678711 -744.57141113 124 110 108
-4011.69262695 -2369.93383789 -745.93359375 129 114 111
-4011.39038086 -2372.81250000 -746.36077881 122 107 105
-3999.82568359 -2367.89990234 -734.58880615 128 120 125
-3999.68920898 -2371.55444336 -735.38519287 126 115 117
-3997.45019531 -2370.79858398 -733.10650635 128 120 124
-3998.47656250 -2373.82788086 -734.64318848 126 114 115
-3991.83666992 -2367.58154297 -727.40118408 127 121 130
-3991.88110352 -2370.74023438 -727.97802734 131 124 130
-3990.29785156 -2368.83691406 -726.28027344 131 124 132
-3987.08007813 -2370.20581055 -723.80981445 129 123 134
-3988.12500000 -2375.60961914 -724.76422119 131 122 128
-3987.80639648 -2376.63208008 -721.09320068 138 128 137
-3991.19970703 -2377.60571289 -719.77142334 132 122 132
-3993.68261719 -2368.17333984 -729.10009766 132 125 132
-3994.50878906 -2374.83398438 -730.98327637 129 119 122
-4004.68115234 -2367.56152344 -738.95782471 124 114 117
-4003.18359375 -2372.77197266 -738.64300537 124 110 109
-4004.57641602 -2370.40600586 -739.53497314 123 110 110
-4005.32202148 -2375.50488281 -741.28979492 127 111 111
-4004.82324219 -2373.40893555 -740.22198486 131 116 114
-4006.67358398 -2364.49755859 -739.86041260 122 113 116
-4008.02954102 -2367.66845703 -741.99682617 122 111 110
-4010.42797852 -2363.97070313 -743.24987793 119 108 108
-4007.85400391 -2372.48632813 -742.89208984 129 114 111
-4010.85375977 -2376.65576172 -745.97717285 125 110 111
-4009.73999023 -2380.47778320 -744.43371582 125 112 114
-4013.11376953 -2375.77636719 -747.81738281 118 104 101
-4014.30688477 -2385.02709961 -745.01800537 126 111 103
-3998.32080078 -2377.08105469 -734.64001465 129 115 114
-3995.29272461 -2378.85375977 -726.14910889 127 118 125
-3997.50415039 -2380.37011719 -730.12701416 127 114 117
-3998.18188477 -2379.65869141 -726.47747803 129 120 125
-3994.63476563 -2378.50512695 -720.34960938 135 126 136
-3997.62890625 -2380.41479492 -719.94689941 132 124 135
-3998.10913086 -2379.72509766 -723.63751221 131 123 131
-4005.86401367 -2379.51879883 -741.41558838 128 113 117
-4001.57202148 -2380.84252930 -733.43542480 128 113 114
-4005.66381836 -2382.91040039 -733.53228760 129 114 113
-4011.95874023 -2384.03979492 -739.58959961 130 113 105
-4013.48486328 -2385.14501953 -742.29797363 128 111 102
-4008.57006836 -2382.86694336 -733.62158203 130 113 109
-4011.88940430 -2383.72290039 -736.89990234 129 112 107
-4011.94702148 -2384.11547852 -733.61950684 131 115 110
-4013.29321289 -2385.31445313 -737.17791748 127 112 105
-4001.75903320 -2380.81298828 -727.06542969 130 121 125
-4005.16699219 -2382.06860352 -727.51330566 130 120 121
-4001.77343750 -2381.26782227 -720.44500732 133 123 133
-4005.00610352 -2382.24267578 -720.91308594 134 125 134
-4008.56372070 -2383.31469727 -727.49108887 131 119 123
-4011.86547852 -2384.19311523 -730.78942871 132 118 115
-4011.96264648 -2384.16796875 -727.61938477 135 124 127
-4014.11499023 -2384.96166992 -727.08807373 135 124 126
-4008.42480469 -2383.09350586 -721.02142334 132 122 131
-4012.06201172 -2384.16210938 -723.96942139 135 125 131
-4011.98071289 -2384.65209961 -720.54888916 137 127 137
-4012.62988281 -2385.10400391 -717.98828125 140 131 142
-4014.69140625 -2360.03588867 -745.97271729 114 103 104
-4016.54614258 -2355.93017578 -746.19628906 113 103 105
-4022.02905273 -2347.55468750 -749.38311768 120 107 108
-4013.34472656 -2365.49023438 -746.13757324 121 108 106
-4017.23925781 -2361.33862305 -748.73071289 119 106 104
-4016.20800781 -2378.33227539 -750.92407227 118 106 103
-4017.77270508 -2392.59277344 -745.97949219 117 122 109
-4016.59960938 -2394.76953125 -753.87768555 118 116 106
-4015.36230469 -2385.34985352 -734.06732178 128 112 104
-4015.39721680 -2385.48364258 -721.15722656 133 124 128
-4017.44238281 -2391.39746094 -729.73077393 122 122 106
-4017.71313477 -2392.04711914 -727.40997314 118 119 106
-3987.83398438 -2376.70190430 -713.61309814 131 124 138
-3991.26489258 -2377.65136719 -713.23132324 131 124 136
-3987.73730469 -2376.41479492 -707.06341553 124 119 133
-3991.35644531 -2377.66455078 -707.66131592 125 120 133
-3988.19726563 -2376.72827148 -694.40301514 129 125 142
-3991.65966797 -2376.78100586 -697.66210938 130 125 143
-3987.80786133 -2377.01098633 -687.93280029 129 124 142
-3991.25903320 -2377.55346680 -685.79138184 129 125 144
-3988.41040039 -2376.34619141 -681.23339844 126 123 142
-3991.30541992 -2377.61083984 -678.59130859 128 125 140
-3991.34863281 -2377.22851563 -674.41168213 123 115 128
-3987.82348633 -2376.42333984 -666.89337158 123 116 126
-3991.25219727 -2377.35400391 -667.54162598 124 118 127
-3994.81103516 -2378.88745117 -711.44909668 138 129 140
-3997.95239258 -2380.26220703 -717.83697510 134 125 135
-3997.88183594 -2380.34765625 -714.04687500 135 128 139
-3997.98315430 -2380.35986328 -708.47692871 133 127 139
-3991.27954102 -2377.78710938 -700.02117920 128 123 140
-3991.24926758 -2377.87548828 -694.29107666 132 127 144
-3998.09448242 -2380.36962891 -701.94677734 135 131 148
-3995.70556641 -2380.52856445 -699.21728516 136 131 149
-3994.65917969 -2379.14331055 -697.16888428 135 130 147
-3997.14428711 -2380.59912109 -694.26678467 138 133 150
-3998.64819336 -2379.71362305 -698.15728760 138 134 151
-4001.84960938 -2380.90942383 -714.06530762 135 129 142
-4005.05078125 -2381.87695313 -713.60351563 137 129 140
-4001.58642578 -2380.74340820 -707.42547607 133 127 143
-4005.16210938 -2381.88793945 -708.04339600 135 130 147
-4012.42089844 -2384.05810547 -714.45941162 138 130 143
-4014.39453125 -2384.95458984 -714.28802490 139 130 141
-4011.83691406 -2384.06494141 -710.40948486 130 124 139
-4013.39379883 -2385.18212891 -708.58801270 137 132 145
-4001.88647461 -2380.64990234 -701.03558350 140 135 152
-4005.11035156 -2382.37377930 -704.12298584 141 136 153
-4005.26367188 -2382.31201172 -701.40301514 139 135 152
-4005.42407227 -2382.31469727 -693.92291260 135 133 151
-4008.67041016 -2383.55688477 -701.41082764 136 132 150
-4012.31469727 -2383.85961914 -704.65960693 134 128 143
-4011.92333984 -2384.12548828 -701.07952881 134 130 147
-4008.46557617 -2383.37377930 -694.77111816 135 131 150
-4012.06542969 -2384.46679688 -697.28900146 134 129 150
-4012.05078125 -2384.51538086 -693.97900391 133 129 150
-3989.98950195 -2377.88598633 -681.64141846 127 124 144
-3996.21386719 -2380.73974609 -690.88690186 136 131 148
-3998.26098633 -2380.01586914 -691.21710205 136 132 149
-3994.69995117 -2378.92041016 -681.01910400 126 122 138
-3996.25341797 -2380.41381836 -682.39721680 126 122 139
-3997.89208984 -2380.71582031 -681.26647949 127 122 141
-3998.61474609 -2380.27807617 -684.66668701 126 122 140
-3994.93310547 -2378.85522461 -674.90911865 128 121 137
-3995.74218750 -2380.77246094 -676.23699951 126 122 139
-3995.22509766 -2378.78149414 -667.34912109 122 116 127
-3998.45019531 -2380.18969727 -667.26690674 125 119 134
-4001.86376953 -2380.39721680 -687.81579590 128 124 143
-4005.27514648 -2381.68164063 -687.37359619 130 125 145
-4001.66723633 -2381.34521484 -685.03491211 128 124 144
-4008.84130859 -2383.23999023 -687.89111328 130 125 144
-4012.06811523 -2384.16699219 -690.29931641 131 126 148
-4011.90869141 -2385.18188477 -678.49841309 137 132 153
-4012.13940430 -2383.85620117 -680.41961670 134 130 151
-4013.13085938 -2385.20019531 -684.86798096 134 129 150
-4001.58789063 -2380.70971680 -674.63549805 128 124 141
-4005.32446289 -2381.76660156 -677.82348633 130 126 144
-4005.68945313 -2382.77587891 -674.34240723 127 123 142
-4009.13012695 -2383.23095703 -674.17102051 127 123 143
-4011.83691406 -2384.10815430 -673.95947266 133 128 148
-4011.88818359 -2384.11865234 -670.60937500 135 129 149
-4015.40112305 -2385.20019531 -710.57751465 139 132 141
-4015.36694336 -2385.25195313 -707.73742676 130 124 134
-4015.49853516 -2384.85546875 -700.41778564 133 129 145
-4015.46850586 -2385.35693359 -694.61730957 136 132 150
-4017.52221680 -2391.48632813 -717.76068115 115 116 107
-4017.16650391 -2392.21411133 -707.13000488 115 116 108
-4015.85400391 -2384.80908203 -687.87768555 130 126 143
-4015.33398438 -2385.17846680 -681.29748535 131 127 144
-4015.57690430 -2385.11181641 -674.77752686 135 129 144
-4017.02978516 -2391.87548828 -674.93041992 116 116 106
-3983.19970703 -2325.65332031 -759.42510986 131 120 128
-3987.91308594 -2328.27124023 -761.16131592 117 109 115
-3993.19775391 -2328.73022461 -759.21942139 128 123 129
-3987.43530273 -2332.85375977 -751.74688721 142 133 141
-3983.35034180 -2333.39257813 -749.99737549 140 132 138
-3990.53125000 -2328.92358398 -756.95001221 134 127 133
-3989.56640625 -2333.30810547 -751.80578613 140 129 137
-4000.35009766 -2332.33935547 -761.03399658 104 96 103
-4007.25000000 -2332.66137695 -759.54180908 121 114 124
-4010.18994141 -2343.84497070 -747.91998291 143 135 141
-4015.77465820 -2342.38793945 -750.69000244 135 127 133
-4016.97705078 -2341.34545898 -752.00067139 142 133 139
-4021.09252930 -2338.75000000 -756.10217285 132 127 130
-4025.18383789 -2339.98681641 -760.92987061 120 113 116
-4027.84545898 -2340.08374023 -760.92907715 114 108 115
-4030.86108398 -2341.18261719 -758.19720459 120 110 111
-4024.45703125 -2346.97705078 -751.21307373 116 105 107
-3999.24658203 -2355.73803711 -761.93103027 57 45 40
-4004.45214844 -2351.02758789 -759.39428711 59 46 44
-4000.14770508 -2358.40747070 -761.24822998 58 46 41
-4001.43383789 -2358.13574219 -757.91809082 72 59 54
-4003.69482422 -2360.80200195 -759.23480225 66 54 49
-4007.17919922 -2350.75415039 -759.47387695 55 42 41
